ply
format ascii 1.0
element vertex 824
property float x
property float y
property float z
property float nx
property float ny
property float nz
end_header
-0.246812 0.183124 -0.987272 0.655708 -0.120847 -0.74528
-0.252308 0.193215 -0.993663 0.642434 -0.0459038 -0.764965
-0.25534 0.206027 -0.995089 0.766631 0.317044 -0.558355
-0.252738 0.201479 -0.993726 0.703694 0.163866 -0.691349
-0.255962 0.205551 -0.996077 0.683562 0.234989 -0.69103
-0.251776 0.199605 -0.993113 0.691278 0.0924236 -0.716654
0.0182792 0.0099286 -0.999743 0.710232 0.350227 0.610664
0.0191377 0.0063132 -1.00377 0.963338 0.119857 -0.240029
0.0182831 0.00993665 -0.99975 0.810862 0.367689 0.455311
0.0189555 0.00524466 -0.997411 0.7704 0.63332 -0.0734149
0.0196195 0.00379125 -1.00257 0.955545 0.135521 -0.261855
0.0201507 0.00381756 -0.998455 0.792973 0.582754 -0.177742
0.0178465 0.0104078 -1.00548 0.945406 0.273853 -0.176669
0.0144662 0.00793085 -0.996848 0.253646 0.855997 0.450482
0.0142425 0.0121104 -0.99955 0.370806 0.561445 0.739786
0.0125971 0.00880861 -0.996916 0.308248 0.6162 0.724763
0.015455 0.0148846 -1.00312 0.682981 0.688975 0.24259
0.0172569 0.011728 -1.00596 0.875803 0.441209 -0.195713
0.00270938 0.0063846 -0.990529 0.129535 0.80434 0.579878
0.00143818 0.00681263 -0.990788 0.103754 0.722332 0.683719
0.000996176 0.00578187 -0.989395 0.135314 0.775517 0.616655
0.0083449 0.00730266 -0.993658 -0.00795818 0.895549 0.444892
0.00699704 0.00778541 -0.993896 0.249222 0.644207 0.723108
0.00651554 0.00667937 -0.992458 0.0470817 0.919072 0.391268
0.0085352 0.0109566 -0.996762 0.345175 0.493115 0.798556
0.01229 0.00808869 -0.99593 0.180771 0.901079 0.39418
0.0029315 0.00992893 -0.99375 0.149585 0.587581 0.795218
0.00467404 0.0133492 -0.996174 0.159667 0.51263 0.843633
0.0103326 0.0144437 -0.999067 0.390874 0.49197 0.777935
0.0116591 0.0173567 -1.00239 0.490012 0.778314 0.392576
0.00642621 0.0167812 -0.998577 0.270469 0.590434 0.760417
0.00741664 0.0192844 -1.00263 0.391158 0.855781 0.338576
-0.00195074 0.0110766 -0.995366 -0.232602 0.553911 0.799424
4.10846e-05 0.0148008 -0.997253 -0.179373 0.538098 0.823575
-0.00263981 0.0150518 -0.998617 -0.5251 0.544355 0.654178
-0.00331916 0.0111688 -0.996108 -0.563355 0.488526 0.666314
0.00202096 0.0185105 -0.999164 -0.0821247 0.641819 0.762446
0.00335294 0.0214302 -1.00247 0.159792 0.932391 0.324213
-0.00173493 0.0188005 -1.00115 -0.542635 0.756986 0.364033
0.000926347 0.0214985 -1.00391 -0.482516 0.862656 -0.151669
0.0150796 0.0150312 -1.00681 0.713889 0.628708 -0.308365
0.011491 0.0180061 -1.00683 0.542796 0.82108 -0.176635
0.00734438 0.0198619 -1.00596 0.265314 0.958397 -0.105283
0.00300073 0.0213223 -1.00477 0.0923639 0.902355 -0.42098
0.0424777 0.0394661 -1.03331 0.0106453 -0.885469 0.464576
0.0426239 0.0394516 -1.03336 0.177656 -0.90241 0.392549
0.0436412 0.0409066 -1.0309 -0.0147103 -0.836615 0.547594
0.0435309 0.0420222 -1.02957 -0.230229 -0.688049 0.688174
0.040282 0.0438878 -1.02911 -0.234111 -0.530023 0.815026
0.0379718 0.0406013 -1.03186 -0.0897976 -0.694988 0.713392
0.0442823 0.0417387 -1.02975 -0.0607385 -0.778156 0.625127
0.0396384 0.0443508 -1.02908 -0.299355 -0.462357 0.834633
0.0360349 0.0458335 -1.02947 -0.220969 -0.365274 0.904294
0.0339626 0.0427327 -1.03121 -0.186078 -0.469834 0.86292
0.0317728 0.0477372 -1.02975 -0.218956 -0.251346 0.942806
0.0301803 0.0453194 -1.03091 -0.248766 -0.37659 0.892354
0.0366165 0.0467086 -1.02901 -0.28268 -0.335478 0.898636
0.0330263 0.0496808 -1.02903 -0.271487 -0.157183 0.94952
0.0272937 0.0493765 -1.0305 -0.285352 -0.161631 0.944696
0.0266269 0.0483649 -1.03099 -0.312666 -0.2751 0.909153
0.0252106 0.0498696 -1.03118 -0.320442 -0.129094 0.93843
0.0297181 0.0532181 -1.02949 -0.16568 0.0175815 0.986023
0.0277244 0.0557684 -1.03001 -0.117191 0.258029 0.959003
0.0234406 0.0521471 -1.03165 -0.45033 0.026338 0.892474
0.0260611 0.0562697 -1.03042 -0.333993 0.296523 0.894719
0.0279587 0.059879 -1.03251 -0.12127 0.680083 0.723036
0.0281381 0.0598109 -1.03248 0.0218602 0.61275 0.789975
0.0220143 0.0560723 -1.0332 -0.551256 0.330814 0.76595
0.0226917 0.0599565 -1.03571 -0.475053 0.671876 0.56825
0.0292616 0.0627635 -1.03588 -0.187635 0.761036 0.62098
0.0310572 0.0623549 -1.03527 -0.168631 0.761209 0.626199
0.0306786 0.0657868 -1.03901 -0.280977 0.846277 0.452623
0.0328135 0.0655938 -1.03791 -0.213407 0.78127 0.586578
0.0377374 0.0698844 -1.04507 -0.297252 0.938443 0.175972
0.0374844 0.0687953 -1.04189 -0.310265 0.887509 0.340682
0.0362902 0.0678039 -1.04077 -0.291795 0.878946 0.377239
0.0309358 0.0671802 -1.04361 -0.340785 0.914548 0.217869
0.0315657 0.0675174 -1.04409 -0.315211 0.925182 0.211377
0.0356069 0.0693894 -1.04702 -0.310199 0.946536 0.0885796
-0.164043 0.101861 -0.967208 -0.565811 0.58035 0.585707
-0.16413 0.101863 -0.96726 -0.312129 0.589278 0.745203
-0.165282 0.0995319 -0.965319 -0.319428 0.853416 0.411882
-0.164024 0.102054 -0.967326 -0.515486 0.439609 0.735539
-0.18123 0.0864034 -0.950517 -0.41061 0.821411 0.395832
-0.182167 0.0862982 -0.951236 -0.387076 0.827773 0.406157
-0.182613 0.085114 -0.949147 -0.361796 0.845376 0.392993
-0.181151 0.0888322 -0.955229 -0.389901 0.838789 0.380014
-0.178663 0.0891575 -0.953262 -0.393971 0.84594 0.359406
-0.175357 0.09147 -0.956099 -0.416461 0.826198 0.379418
-0.173212 0.0944759 -0.958791 -0.388633 0.831611 0.396722
-0.184184 0.0838806 -0.947724 -0.271732 0.912824 0.304817
-0.16959 0.0965995 -0.961667 -0.322328 0.872526 0.367155
-0.172231 0.0964952 -0.963453 -0.3057 0.841938 0.444621
-0.172716 0.0947922 -0.959198 -0.30072 0.899152 0.317951
-0.166658 0.0991352 -0.964458 -0.2267 0.868748 0.440323
-0.170943 0.0993615 -0.966858 -0.327209 0.730089 0.599921
-0.169264 0.102704 -0.96942 -0.341265 0.609325 0.715724
-0.164566 0.106464 -0.969565 -0.400075 0.508244 0.762645
-0.167174 0.106548 -0.971094 -0.428828 0.55867 0.709925
-0.165133 0.110332 -0.972873 -0.357387 0.631429 0.688165
-0.163485 0.110107 -0.972124 -0.304116 0.64067 0.705022
-0.161936 0.11347 -0.974741 -0.290692 0.726687 0.622434
-0.163477 0.113647 -0.975485 -0.303285 0.751374 0.586051
-0.1623 0.116377 -0.97913 -0.326731 0.80496 0.495263
-0.159614 0.116371 -0.977455 -0.354322 0.77882 0.517586
-0.161195 0.11902 -0.982931 -0.357052 0.804918 0.473941
-0.157305 0.119279 -0.980168 -0.379258 0.789214 0.483017
-0.150977 0.124074 -0.985806 -0.314909 0.847156 0.427971
-0.153354 0.124071 -0.987299 -0.237398 0.858502 0.454551
-0.153849 0.122463 -0.983566 -0.216521 0.914593 0.341523
0.0915603 0.0457945 -1.05725 -0.486306 0.427166 0.762257
0.0897619 0.0427502 -1.05706 -0.446318 0.305851 0.840985
0.0888309 0.041171 -1.05695 -0.393871 0.37952 0.837156
0.0945271 0.0509613 -1.05824 -0.509577 0.551654 0.660311
0.09583 0.0536322 -1.06035 -0.447994 0.726049 0.521685
0.0959093 0.0537334 -1.06044 -0.40321 0.788347 0.464683
0.0970546 0.0583661 -1.06926 -0.450175 0.826112 0.338942
0.0976993 0.0584625 -1.06874 -0.407067 0.826235 0.389399
0.0646002 0.0551566 -1.04674 0.62608 -0.346836 -0.698376
0.0535999 0.0703179 -1.05021 0.825375 0.193823 -0.530272
0.0611045 0.0653067 -1.05086 0.540372 0.278299 -0.794071
0.0520387 0.0686115 -1.05333 0.230059 0.61216 -0.756527
0.0516804 0.0680974 -1.05374 0.241273 0.542184 -0.804875
0.0538298 0.0710613 -1.05074 0.685466 0.393871 -0.612374
-0.19291 0.0805218 -0.941784 -0.017962 0.926084 0.376891
-0.195009 0.0809532 -0.942557 -0.0246229 0.959246 0.281496
-0.195422 0.0824641 -0.953058 -0.227751 0.95659 0.181836
0.0259904 0.164057 -1.09036 0.972376 -0.0989961 -0.211389
0.0259358 0.157534 -1.08665 0.962263 -0.134804 -0.236385
0.0323811 0.211714 -1.12024 0.813807 -0.417969 -0.403758
0.0322324 0.210855 -1.11969 0.818982 -0.400252 -0.411178
0.114907 0.0667819 -1.07094 -0.404255 0.865882 0.294664
0.111801 0.0640466 -1.06851 -0.487945 0.844344 0.221343
0.112071 0.0641878 -1.06817 -0.529969 0.825779 0.192932
0.112395 0.0660668 -1.07341 -0.371547 0.840361 0.394648
0.119615 0.0725451 -1.07638 -0.483172 0.824285 0.295125
0.115943 0.0716285 -1.07983 -0.327487 0.828054 0.455059
0.114117 0.069907 -1.07801 -0.391444 0.831532 0.394115
0.107974 0.0635266 -1.07156 -0.208063 0.845124 0.492418
0.110607 0.066241 -1.07432 -0.135912 0.756568 0.639634
-0.122922 0.173511 -1.02331 -0.434954 0.579673 0.689053
-0.125013 0.169666 -1.02164 -0.465153 0.588551 0.661242
-0.121808 0.169795 -1.01947 -0.438779 0.607827 0.661831
-0.12085 0.173512 -1.02201 -0.460061 0.570054 0.680722
-0.11985 0.177204 -1.02456 -0.512699 0.593648 0.620259
-0.121011 0.177137 -1.02537 -0.43788 0.605932 0.66416
-0.126103 0.173542 -1.02527 -0.445528 0.55934 0.699031
-0.126672 0.169593 -1.02277 -0.46324 0.574177 0.675077
-0.125034 0.177193 -1.02782 -0.377983 0.582722 0.719419
-0.119127 0.18073 -1.02749 -0.41002 0.609888 0.678174
-0.1186 0.180746 -1.02714 -0.481556 0.620372 0.619066
-0.117821 0.183207 -1.02889 -0.418303 0.613864 0.669473
-0.124217 0.180994 -1.03035 -0.270896 0.636036 0.722546
-0.122342 0.184163 -1.03301 -0.340415 0.576703 0.742652
-0.117575 0.184423 -1.02969 -0.469024 0.4533 0.757981
-0.12236 0.185622 -1.03382 -0.240222 0.323806 0.915119
-0.118173 0.18907 -1.03204 -0.443453 0.266784 0.855673
-0.120218 0.189092 -1.0333 -0.452406 0.149864 0.87913
-0.118909 0.191198 -1.0329 -0.456011 0.142343 0.878517
-0.124632 0.189822 -1.03514 -0.129185 0.257912 0.957493
-0.120369 0.194674 -1.03419 -0.420258 0.154655 0.894128
-0.122284 0.194968 -1.03502 -0.363853 0.194986 0.910819
-0.125033 0.190433 -1.0353 -0.185403 0.188696 0.964375
-0.127386 0.195848 -1.03711 -0.207038 0.292126 0.933701
-0.127525 0.195608 -1.03707 -0.102706 0.238045 0.965809
-0.121191 0.196791 -1.035 -0.4552 0.179193 0.872171
-0.124789 0.20031 -1.03769 -0.430343 0.271005 0.861023
-0.122283 0.200109 -1.03637 -0.500314 0.19035 0.844661
-0.123182 0.202972 -1.03757 -0.458399 0.214486 0.862477
-0.127774 0.195992 -1.03717 0.00122012 0.349543 0.936919
-0.128096 0.200475 -1.03956 -0.252177 0.350203 0.902089
-0.124213 0.205554 -1.03855 -0.374079 0.0982645 0.922176
-0.129082 0.202658 -1.04033 -0.209544 0.131802 0.968876
-0.126922 0.206106 -1.03956 -0.312091 -0.00267505 0.950048
-0.131683 0.207402 -1.04091 -0.120118 -0.189513 0.974503
-0.132231 0.206514 -1.04105 0.0148449 0.02092 0.999671
-0.136248 0.208631 -1.04039 0.200183 -0.0290217 0.979329
-0.135532 0.209809 -1.0403 0.070194 -0.388216 0.918891
-0.137541 0.213529 -1.03688 0.20083 -0.668511 0.716073
-0.140586 0.210103 -1.03921 0.283615 -0.407803 0.867905
-0.138197 0.213547 -1.03659 0.314184 -0.677443 0.665102
-0.149024 0.208706 -1.03451 0.179339 -0.489504 0.85336
-0.15041 0.210379 -1.03328 0.134 -0.530328 0.837136
-0.146529 0.208356 -1.03547 0.443067 -0.294373 0.84678
-0.143774 0.209855 -1.03759 0.560324 -0.406751 0.721519
-0.144144 0.212214 -1.03486 0.401247 -0.611668 0.681809
-0.143357 0.213371 -1.0341 0.41136 -0.597351 0.688444
-0.1444 0.213342 -1.0336 0.300963 -0.696893 0.650969
-0.14839 0.213449 -1.03181 0.209761 -0.540744 0.814614
-0.125761 0.207972 -1.0392 -0.282367 -0.0733577 0.956498
-0.129203 0.211241 -1.03945 -0.101101 -0.315387 0.943562
-0.133463 0.21287 -1.0384 0.122207 -0.52458 0.842544
-0.153149 0.214139 -1.03027 0.134352 -0.548091 0.825558
-0.153362 0.214414 -1.03005 0.184975 -0.528088 0.828799
-0.157468 0.215587 -1.02881 -0.0151833 -0.623818 0.781422
-0.153019 0.214336 -1.03017 0.204136 -0.438882 0.875049
-0.164212 0.213556 -1.03012 -0.0484546 -0.496776 0.866525
-0.161688 0.217294 -1.02782 -0.0484164 -0.522756 0.851106
-0.168073 0.215949 -1.02953 -0.0244614 -0.399597 0.916364
-0.165832 0.219156 -1.02696 -0.0563 -0.494804 0.867179
0.0342257 -0.0319861 -0.972118 0.610614 -0.4266 -0.667206
0.0306764 -0.0286852 -0.978007 0.569727 -0.543942 -0.616067
0.0345977 -0.0279187 -0.974587 0.649849 -0.454378 -0.609292
0.0296543 -0.032364 -0.975457 0.524693 -0.475971 -0.705797
0.0351308 -0.0239474 -0.977077 0.696564 -0.32598 -0.639168
0.0311224 -0.0266955 -0.979338 0.588992 -0.523601 -0.615573
0.0323123 -0.0246306 -0.979701 0.686857 -0.387211 -0.615057
0.0314385 -0.024851 -0.980526 0.653718 -0.429951 -0.622732
0.0347065 -0.0208536 -0.978628 0.769479 -0.151628 -0.620411
0.034152 -0.0190716 -0.979377 0.772198 0.0739764 -0.63106
0.031237 -0.0204403 -0.982923 0.759669 -0.1627 -0.629629
0.0304834 -0.017804 -0.984064 0.780651 0.00197172 -0.624964
0.0324022 -0.0153027 -0.980696 0.835532 0.136591 -0.532192
0.0296306 -0.0151898 -0.985145 0.784597 0.0408732 -0.618657
0.0317148 -0.0133233 -0.981494 0.859283 0.185786 -0.476568
0.0283208 -0.0119689 -0.986358 0.783398 0.0727301 -0.61725
0.030162 -0.00962313 -0.982864 0.833813 0.359258 -0.419154
0.0274095 -0.00957045 -0.98729 0.849544 0.140419 -0.508485
0.0275505 -0.00654227 -0.983396 0.75612 0.564553 -0.331002
0.0263115 -0.0058264 -0.988895 0.939231 0.112898 -0.32419
0.0269809 -0.00583064 -0.983534 0.843291 0.516748 -0.147759
0.0147808 -0.0289325 -0.964835 -0.742093 0.0809039 0.665397
0.0124771 -0.0243004 -0.968271 -0.734463 0.129064 0.666263
0.0120331 -0.0304009 -0.968402 -0.729535 -0.385503 0.564948
0.0137574 -0.02403 -0.967129 -0.67742 0.191068 0.710349
0.0077289 -0.0192458 -0.972709 -0.709342 -0.189782 0.678835
0.00865375 -0.0208976 -0.972204 -0.724611 -0.169849 0.667899
0.010266 -0.0186001 -0.970307 -0.660458 -0.144715 0.736786
0.0245598 -0.000514 -0.985414 0.778852 0.517459 0.354438
0.0260575 -0.00447197 -0.989544 0.979543 0.028385 -0.199222
0.0245738 -0.000481268 -0.985458 0.782891 0.40365 0.473442
0.0225606 0.000733554 -0.985193 0.430942 0.654285 0.62145
0.0189679 -0.00140742 -0.98232 0.163665 0.797381 0.580859
0.0149045 0.000634455 -0.9823 0.276243 0.541954 0.79371
0.0138632 -0.00162294 -0.979834 0.0546068 0.920956 0.385822
0.0167098 0.00413104 -0.984589 0.353679 0.470416 0.808468
0.0206576 0.00187181 -0.984955 0.297068 0.506027 0.809745
0.0250099 0.000445473 -0.991835 0.931508 0.13513 -0.337686
0.0254775 0.00191603 -0.989693 0.86208 0.50665 -0.0111393
0.0247277 0.00116961 -0.992113 0.84902 0.402029 -0.342837
0.0207188 0.00195492 -0.98503 0.380457 0.492858 0.782524
0.0221792 0.00499501 -0.98789 0.635095 0.67565 0.374368
0.0217792 0.00542887 -0.993153 0.683707 0.694713 -0.223425
0.0183118 0.00738014 -0.987317 0.325817 0.850637 0.412627
0.0178663 0.00775329 -0.992653 0.316796 0.94451 -0.086838
0.0129607 0.0067398 -0.984138 0.413002 0.837154 0.358611
0.0134618 0.00617747 -0.984053 0.448164 0.778241 0.439876
0.0129151 0.00790072 -0.990044 -0.031076 0.996158 0.0818811
0.0128648 0.00789451 -0.990416 -0.0342694 0.999046 0.027072
0.0125778 0.00670614 -0.983942 0.0247034 0.947948 0.317466
0.0074932 0.0066357 -0.987216 -0.288529 0.95711 0.0262899
0.0126209 0.00785717 -0.990282 -0.173469 0.983536 0.0506455
-0.12591 0.145333 -0.998084 -0.332283 0.71958 0.609749
-0.132714 0.14281 -0.997703 -0.388362 0.761749 0.518568
-0.128922 0.142844 -0.995284 -0.306309 0.814055 0.493447
-0.131312 0.145816 -1.00086 -0.385414 0.704783 0.595598
-0.124944 0.149044 -1.00063 -0.307862 0.640254 0.703773
-0.129622 0.149172 -1.0034 -0.460796 0.649641 0.604676
-0.127777 0.152717 -1.0056 -0.455493 0.621775 0.63712
-0.123232 0.152311 -1.00327 -0.331954 0.591194 0.735048
-0.123024 0.156476 -1.00572 -0.432235 0.596196 0.676553
-0.125972 0.156213 -1.00789 -0.489443 0.645555 0.586263
-0.133827 0.142666 -0.998581 -0.427671 0.753739 0.498974
-0.131849 0.145772 -1.00125 -0.45011 0.695275 0.560352
-0.130212 0.149083 -1.00388 -0.467937 0.656013 0.592184
-0.128876 0.152574 -1.00647 -0.476341 0.637635 0.60541
-0.127543 0.156067 -1.00906 -0.473903 0.640169 0.604648
-0.124229 0.159634 -1.01032 -0.464272 0.660939 0.589586
-0.121487 0.159846 -1.00833 -0.447496 0.661049 0.602297
-0.122513 0.163023 -1.0128 -0.45236 0.669888 0.588744
-0.119948 0.163216 -1.01095 -0.452545 0.67163 0.586615
-0.12085 0.166346 -1.01539 -0.442161 0.663778 0.603235
-0.118318 0.16653 -1.01357 -0.461867 0.666941 0.584696
-0.119093 0.169784 -1.01778 -0.450431 0.613232 0.64889
-0.11681 0.169918 -1.01619 -0.478397 0.621916 0.619966
-0.126152 0.159524 -1.01166 -0.434523 0.649279 0.624201
-0.124661 0.162922 -1.01427 -0.402652 0.675778 0.61741
-0.12312 0.166291 -1.01688 -0.435758 0.653139 0.619293
-0.237228 0.199063 -0.976865 0.676271 0.345254 -0.650736
-0.241446 0.19974 -0.980964 0.673805 0.349668 -0.650937
-0.239583 0.202131 -0.977507 0.648192 0.460105 -0.606754
-0.240118 0.197679 -0.980415 0.712904 0.193392 -0.674068
-0.244508 0.203771 -0.981821 0.701289 0.451139 -0.551967
-0.242884 0.205682 -0.977983 0.629799 0.569464 -0.528265
-0.246411 0.208781 -0.9781 0.582111 0.666126 -0.466287
-0.246539 0.208645 -0.97847 0.588028 0.667725 -0.456471
-0.24619 0.205602 -0.982077 0.642907 0.571414 -0.510056
-0.247832 0.207276 -0.982261 0.650454 0.609392 -0.453378
-0.246683 0.209009 -0.978103 0.562623 0.682909 -0.465929
-0.250008 0.211739 -0.978105 0.575033 0.702211 -0.419806
-0.251243 0.210608 -0.982563 0.648618 0.656847 -0.384509
-0.25482 0.213606 -0.982599 0.621382 0.723493 -0.300736
0.0280576 -0.0324094 -0.976514 0.344186 -0.586747 -0.732983
0.062479 0.0450238 -1.0287 0.153873 -0.984173 0.0879006
0.0623844 0.0450497 -1.02958 0.330892 -0.938053 -0.102793
0.0629583 0.0452039 -1.02902 0.360569 -0.929654 -0.0757178
0.052487 0.0453283 -1.02424 0.0141812 -0.778707 0.627228
0.0505404 0.0427709 -1.02757 0.0894563 -0.86737 0.489559
0.0634076 0.0488887 -1.03974 0.502477 -0.773619 -0.386044
0.0693563 0.0499567 -1.03467 0.457388 -0.792101 -0.404194
0.0666813 0.0554715 -1.04504 0.584475 -0.501012 -0.63826
0.0732672 0.0561964 -1.04001 0.528708 -0.612831 -0.587287
0.0614685 0.0484499 -1.04151 0.53295 -0.757305 -0.377429
0.0449811 -0.0612829 -0.960553 -0.481625 -0.260322 0.836821
0.0482774 -0.0648443 -0.960068 -0.338854 -0.188289 0.921805
0.0506505 -0.0614314 -0.957426 -0.415462 -0.563033 0.714412
0.0470753 -0.0584295 -0.957465 -0.490181 -0.578563 0.651911
0.0428518 -0.0585971 -0.961084 -0.566343 -0.41047 0.714682
0.0448291 -0.0566668 -0.957419 -0.481358 -0.66247 0.573958
0.0434111 -0.0556062 -0.957362 -0.462036 -0.720972 0.516451
0.0630687 -0.0461291 -0.97182 -0.172122 0.983533 -0.0551068
0.05699 -0.047369 -0.973974 -0.0134661 0.993902 -0.109443
0.058269 -0.0461508 -0.969584 0.0861236 0.911868 -0.401347
0.0594039 -0.0470496 -0.975273 -0.198386 0.965307 0.169781
0.0631547 -0.045177 -0.978068 -0.187438 0.89076 0.41402
0.0633856 -0.0460609 -0.972005 -0.164149 0.983156 0.0803707
0.0523021 -0.0465988 -0.972237 0.142201 0.936039 -0.321884
0.0539573 -0.0446259 -0.968448 0.202225 0.751106 -0.628446
0.0490013 -0.0436717 -0.969731 0.264684 0.625727 -0.733763
0.0503123 -0.0459002 -0.97171 0.187134 0.86415 -0.467147
-0.172223 0.0816298 -0.935244 -0.455944 0.73244 0.505614
-0.170745 0.084728 -0.938238 -0.474219 0.728583 0.49425
-0.291275 0.301906 -1.00991 -0.298001 -0.406424 0.863722
-0.293579 0.306929 -1.00946 -0.495386 -0.294196 0.817338
-0.294569 0.305472 -1.0104 -0.399626 -0.246037 0.883043
0.0132734 0.126748 -1.04072 0.699084 -0.714041 0.0377638
0.0134341 0.126314 -1.05189 0.665239 -0.716421 0.210234
0.0169332 0.130446 -1.04451 0.757928 -0.652312 0.00586053
0.0107153 0.124311 -1.0495 0.607569 -0.788698 0.0938902
0.0198203 0.131073 -1.05754 0.792558 -0.43529 0.427054
0.0214154 0.136345 -1.04991 0.811534 -0.565078 0.148656
0.0253627 0.136337 -1.06308 0.889742 -0.245404 0.384886
0.0258116 0.142295 -1.05531 0.902126 -0.382887 0.198913
0.0275648 0.1436 -1.0682 0.978377 -0.108821 0.175888
0.02852 0.149254 -1.0605 0.956951 -0.272531 0.0998541
0.028485 0.15163 -1.07316 0.979465 -0.089552 -0.180633
0.0311485 0.156262 -1.06567 0.963574 -0.262569 -0.0508133
-0.00331565 0.110596 -1.03525 0.74445 -0.65269 -0.140678
0.00136916 0.114019 -1.02802 0.692343 -0.708863 -0.13481
0.00119077 0.116479 -1.04067 0.666684 -0.73171 -0.141888
0.00642368 0.119575 -1.0335 0.650625 -0.743646 -0.153873
-0.0546298 0.0188211 -0.948312 0.647153 -0.722695 -0.242704
-0.0664966 0.0128287 -0.962111 0.630744 -0.731288 -0.259576
-0.0661585 0.0132674 -0.962515 0.647566 -0.707333 -0.28344
-0.0401248 0.0444632 -0.969513 0.6734 -0.592392 -0.442271
-0.0544983 0.0368946 -0.981261 0.665242 -0.594842 -0.451238
-0.052799 0.040089 -0.982952 0.670658 -0.592187 -0.446691
-0.0533284 0.0399112 -0.983506 0.666212 -0.593613 -0.451425
-0.0449107 0.0548897 -0.990666 0.660564 -0.632713 -0.40414
-0.0479005 0.0538241 -0.993878 0.660513 -0.636277 -0.39859
0.117623 0.0394784 -1.03323 -0.541982 0.663334 0.515989
0.115167 0.0361768 -1.0311 -0.617717 0.7001 0.35817
0.0516979 -0.0342774 -0.956236 -0.0926969 0.939097 -0.330915
0.0507002 -0.0344997 -0.95714 0.208371 0.93627 -0.282807
0.0510289 -0.0341951 -0.955973 0.134321 0.87536 -0.464439
0.049889 -0.0351343 -0.960584 0.361052 0.848949 -0.38591
0.0460223 -0.0331029 -0.958316 0.698039 0.712244 0.0738187
0.0465751 -0.0329554 -0.95461 0.404709 0.533891 -0.742409
0.0460821 -0.0325971 -0.960254 0.801384 0.496779 -0.333157
0.0453145 -0.0304588 -0.955436 0.806623 -0.211574 -0.551902
0.0462263 -0.0267142 -0.957974 0.861256 -0.405072 -0.306847
0.0448098 -0.0289795 -0.961708 0.854161 -0.158533 -0.495254
0.0454009 -0.0250427 -0.964205 0.782596 -0.393665 -0.482257
0.0480536 -0.0235174 -0.960625 0.857358 -0.369512 -0.358328
0.0455402 -0.0235112 -0.965134 0.788255 -0.329202 -0.519886
0.0480854 -0.0197529 -0.962767 0.879167 -0.138634 -0.455901
0.0455539 -0.0208447 -0.966647 0.804248 -0.0839025 -0.588341
0.0479739 -0.0191799 -0.963039 0.847178 0.149177 -0.509937
0.0327568 -0.0401055 -0.944171 -0.880524 -0.252746 0.400995
0.0326371 -0.040405 -0.944622 -0.840129 -0.221044 0.495301
0.0328128 -0.0402133 -0.944136 -0.85182 -0.303416 0.427013
0.0305711 -0.0345366 -0.946304 -0.764926 -0.0753517 0.639695
0.0283567 -0.0376311 -0.9492 -0.792669 -0.199303 0.576155
0.0277041 -0.0359059 -0.949873 -0.811166 -0.0929647 0.57738
0.0306105 -0.0216611 -0.953593 -0.547164 0.436448 0.71423
0.0307683 -0.0174658 -0.956036 -0.550632 0.432323 0.714073
0.0286628 -0.0174709 -0.957362 -0.453959 0.370034 0.810553
0.0307241 -0.0138839 -0.958039 -0.415359 0.395047 0.819399
0.0259802 -0.0123456 -0.960416 -0.644214 0.431707 0.631361
0.0255678 -0.0174673 -0.959296 -0.569848 0.227501 0.78963
0.0248948 -0.014056 -0.960912 -0.681807 0.249898 0.687525
0.0304335 -0.0129751 -0.958417 -0.145056 0.403882 0.903238
0.0286988 -0.00777299 -0.960552 -0.403896 -0.23507 0.884087
0.0282823 -0.00824308 -0.961632 -0.42217 0.793225 -0.438824
0.0436449 -0.0171394 -0.967856 0.704801 0.435643 -0.559885
0.0452826 -0.0152016 -0.964039 0.641424 0.606886 -0.469324
0.0400899 -0.014097 -0.967927 0.51774 0.766528 -0.379972
0.0414794 -0.0126572 -0.963714 0.447331 0.828438 -0.337025
0.0375094 -0.0104471 -0.963123 0.285447 0.94241 -0.17431
-0.158481 0.08289 -0.92505 -0.364191 0.810027 0.459589
-0.159566 0.0828615 -0.925765 -0.341577 0.805615 0.484056
-0.160338 0.0810192 -0.923133 -0.363722 0.811389 0.457552
-0.155853 0.0856075 -0.927803 -0.382562 0.773294 0.505631
-0.158325 0.0856697 -0.929274 -0.330051 0.763462 0.555151
-0.161139 0.0801901 -0.922294 -0.385826 0.796151 0.466135
-0.165774 0.0798507 -0.925625 -0.418602 0.79015 0.4477
-0.163393 0.0827162 -0.928347 -0.423746 0.782098 0.456906
-0.161224 0.0857082 -0.931041 -0.438973 0.752496 0.490971
-0.156894 0.0887097 -0.932371 -0.342153 0.752031 0.563365
-0.153917 0.0887393 -0.930468 -0.385623 0.758447 0.525408
-0.151515 0.0915924 -0.933192 -0.374873 0.722834 0.580501
-0.155508 0.0916959 -0.935564 -0.375908 0.765809 0.521756
-0.150017 0.0949866 -0.935803 -0.411799 0.771424 0.485104
-0.154459 0.0941574 -0.938947 -0.414263 0.804208 0.426187
-0.154226 0.0943914 -0.939187 -0.382142 0.835382 0.3951
-0.151294 0.0969274 -0.941977 -0.376045 0.853937 0.359696
-0.147196 0.0975883 -0.938579 -0.37352 0.867809 0.327704
-0.159099 0.0887273 -0.93373 -0.400922 0.746313 0.531299
-0.156761 0.0916178 -0.936447 -0.384824 0.793736 0.471055
-0.130268 0.121227 -0.96078 -0.473798 0.802819 0.361936
-0.130837 0.119846 -0.958728 -0.44255 0.771958 0.456323
-0.143983 0.0999564 -0.941405 -0.402885 0.850591 0.337904
-0.146369 0.0996257 -0.943315 -0.391694 0.847807 0.357489
-0.146916 0.0977677 -0.93881 -0.350388 0.884363 0.308431
-0.14108 0.102509 -0.944192 -0.467122 0.776265 0.423333
-0.145383 0.102123 -0.947373 -0.450683 0.796298 0.403478
-0.148237 0.0993881 -0.944784 -0.41156 0.846735 0.337132
-0.145566 0.102081 -0.947541 -0.513015 0.780734 0.35675
-0.145162 0.102632 -0.94804 -0.497694 0.736709 0.457777
-0.139281 0.105723 -0.94684 -0.519163 0.696652 0.495122
-0.1435 0.105135 -0.950223 -0.482752 0.720096 0.49841
-0.141683 0.108338 -0.952874 -0.488576 0.702538 0.51743
-0.137557 0.108982 -0.949479 -0.522302 0.704308 0.480781
-0.1356 0.112101 -0.952147 -0.494279 0.722255 0.483774
-0.139897 0.111559 -0.95552 -0.468259 0.707419 0.529427
-0.133631 0.115213 -0.954817 -0.480063 0.718311 0.503555
-0.138037 0.114736 -0.958176 -0.443563 0.730928 0.518649
-0.135916 0.117757 -0.960865 -0.434558 0.773227 0.461821
-0.131825 0.118423 -0.957466 -0.481658 0.723978 0.493823
-0.129454 0.123515 -0.965209 -0.453075 0.8089 0.374706
-0.128312 0.126078 -0.969087 -0.477298 0.790757 0.383263
-0.125882 0.128914 -0.971815 -0.512525 0.775585 0.368492
-0.123479 0.131766 -0.974539 -0.48899 0.780528 0.389441
-0.118546 0.134897 -0.975328 -0.447412 0.762556 0.467258
-0.116985 0.138095 -0.978145 -0.502506 0.712401 0.48987
-0.121244 0.134719 -0.977242 -0.460229 0.741897 0.487625
-0.119212 0.137793 -0.979919 -0.461858 0.721885 0.515334
-0.115553 0.141138 -0.981238 -0.496468 0.721921 0.482026
-0.11412 0.14418 -0.984331 -0.53641 0.727507 0.427781
-0.117273 0.140923 -0.982585 -0.437748 0.730374 0.524338
0.12608 0.0627911 -1.04551 -0.453705 0.827277 0.331307
0.120886 0.0557395 -1.042 -0.587196 0.509343 0.629103
0.122988 0.0560606 -1.04028 -0.633877 0.484061 0.603229
0.124219 0.0623946 -1.04718 -0.492938 0.781879 0.381676
0.123241 0.0430395 -1.03304 -0.568079 0.570129 0.593497
0.124228 0.0404306 -1.02789 -0.635281 0.640348 0.431709
0.125969 0.0438486 -1.03032 -0.703532 0.557232 0.441061
0.121626 0.0397158 -1.03042 -0.530522 0.662694 0.528567
0.127 0.0456274 -1.03058 -0.620897 0.494791 0.608003
0.123622 0.0471014 -1.03552 -0.593808 0.407255 0.693928
0.127327 0.0479979 -1.03207 -0.645847 0.416763 0.63968
0.12726 0.052328 -1.03448 -0.601126 0.31783 0.733234
0.123378 0.0498809 -1.03697 -0.632245 0.357703 0.687251
0.124558 0.0518203 -1.03681 -0.674594 0.304663 0.672386
0.126711 0.0552199 -1.03586 -0.636265 0.262599 0.725403
0.123372 0.0515415 -1.03791 -0.659216 0.333497 0.673954
0.126554 0.05704 -1.03682 -0.661398 0.458046 0.593924
0.140366 0.0702267 -1.05066 -0.394319 0.824499 0.40585
0.138902 0.0699839 -1.05188 -0.424738 0.82203 0.379294
0.138432 0.068556 -1.04882 -0.354601 0.871257 0.339365
0.140019 0.0726417 -1.05566 -0.485917 0.739941 0.465159
0.142708 0.0731158 -1.05338 -0.439786 0.747587 0.497697
0.144621 0.0762616 -1.05604 -0.450142 0.707112 0.545311
0.141657 0.0759335 -1.05831 -0.50258 0.679655 0.534306
0.137273 0.067787 -1.04785 -0.329807 0.892459 0.307806
0.132849 0.0673208 -1.05121 -0.358225 0.875073 0.325458
0.136144 0.06964 -1.05404 -0.385048 0.839799 0.382721
0.138624 0.0724464 -1.05678 -0.472485 0.744014 0.472441
0.140281 0.0757449 -1.05941 -0.524213 0.676156 0.517701
-0.0989507 0.173628 -1.00387 -0.568828 0.466709 0.677213
-0.0937379 0.175969 -1.00194 -0.46487 0.569006 0.678328
-0.0975998 0.175984 -1.00434 -0.487071 0.515834 0.704754
-0.0956196 0.179694 -1.00625 -0.447925 0.6298 0.634598
-0.0927075 0.179642 -1.00449 -0.46838 0.606592 0.642391
-0.0988155 0.175894 -1.00522 -0.59281 0.506351 0.626247
-0.0977181 0.179527 -1.00778 -0.542209 0.62265 0.564196
-0.0913526 0.183122 -1.00708 -0.478125 0.65655 0.583385
-0.0939286 0.183051 -1.00879 -0.452812 0.672436 0.585484
-0.0897718 0.186466 -1.00971 -0.471187 0.678051 0.564118
-0.0922525 0.186391 -1.01135 -0.448483 0.678847 0.581404
-0.0960886 0.182842 -1.0104 -0.508925 0.669152 0.541507
-0.0945053 0.186185 -1.01302 -0.504567 0.670731 0.543628
-0.0906064 0.189693 -1.01399 -0.456559 0.663925 0.592249
-0.088125 0.18977 -1.01234 -0.457257 0.67343 0.580868
-0.0867925 0.193264 -1.01492 -0.456562 0.588878 0.666913
-0.0888301 0.193155 -1.01634 -0.49034 0.581846 0.648862
-0.0928689 0.189496 -1.01565 -0.497961 0.65458 0.568823
-0.0914413 0.192932 -1.01825 -0.512402 0.55926 0.651669
-0.0866478 0.197111 -1.01781 -0.499197 0.482817 0.719507
-0.0860999 0.197139 -1.01743 -0.500148 0.486799 0.716155
-0.0860658 0.198125 -1.01801 -0.505283 0.416438 0.755823
-0.0911053 0.197021 -1.02072 -0.51283 0.410097 0.754205
-0.0913793 0.198988 -1.0217 -0.518264 0.342064 0.783833
-0.0861345 0.20145 -1.01985 -0.520128 0.374546 0.767582
-0.089826 0.201632 -1.02194 -0.462906 0.369204 0.805858
-0.0916557 0.20164 -1.02307 -0.52744 0.358202 0.770389
-0.0865126 0.205966 -1.02223 -0.519851 0.3532 0.777821
-0.0873076 0.205999 -1.02269 -0.457696 0.380751 0.803457
-0.0866534 0.207119 -1.02282 -0.501779 0.329736 0.799682
-0.0919616 0.206113 -1.02546 -0.481941 0.32233 0.814761
-0.0922848 0.207344 -1.026 -0.463828 0.212572 0.860045
-0.0900293 0.211076 -1.02582 -0.413536 0.196084 0.889123
-0.0873558 0.210761 -1.02455 -0.437633 0.22669 0.870109
-0.0939391 0.211586 -1.02763 -0.406436 0.135915 0.903514
-0.0885396 0.213509 -1.02555 -0.42652 0.0534773 0.902896
-0.0945752 0.212923 -1.02809 -0.328996 -0.0220888 0.944073
-0.0913865 0.217462 -1.02646 -0.388756 -0.153908 0.908395
-0.0916447 0.217503 -1.02657 -0.344028 -0.180854 0.921377
-0.0915522 0.217639 -1.02649 -0.376782 -0.276318 0.884129
-0.0960889 0.219185 -1.02725 -0.245217 -0.143566 0.958779
-0.0980261 0.216174 -1.02833 -0.300676 -0.200954 0.932315
-0.0949813 0.220934 -1.02676 -0.280162 -0.167905 0.945155
-0.100765 0.220583 -1.02842 -0.333602 -0.102263 0.937151
-0.101387 0.219606 -1.02871 -0.394333 -0.145428 0.907388
-0.098388 0.224274 -1.02707 -0.267922 -0.234178 0.934547
-0.102174 0.220804 -1.02902 -0.443858 -0.0998695 0.890515
-0.104324 0.223888 -1.02977 -0.319933 -0.282528 0.904335
-0.101952 0.227298 -1.02712 -0.302482 -0.488954 0.818186
-0.108071 0.226546 -1.02954 -0.166946 -0.547564 0.819941
-0.105905 0.229542 -1.02656 -0.161148 -0.644045 0.747822
-0.112335 0.228166 -1.02848 -0.0988616 -0.667301 0.738197
-0.110124 0.231253 -1.02557 -0.0723827 -0.644686 0.761013
-0.114394 0.232862 -1.0245 -0.0200849 -0.679504 0.733396
-0.116594 0.229796 -1.02742 0.0415331 -0.713525 0.699398
-0.121295 0.23054 -1.02567 0.0198241 -0.671389 0.74084
-0.117375 0.229898 -1.02712 0.126771 -0.726274 0.675614
-0.119164 0.233653 -1.02352 0.0625702 -0.593411 0.802464
-0.11881 0.234178 -1.0232 0.0421766 -0.553683 0.831658
-0.119911 0.234528 -1.02289 0.0380565 -0.596351 0.801821
-0.125345 0.232591 -1.02495 0.0570114 -0.638456 0.767544
-0.130306 0.232812 -1.02278 0.237984 -0.728518 0.642359
-0.129503 0.232864 -1.02318 0.254173 -0.726322 0.638633
-0.129633 0.233794 -1.02209 0.220076 -0.660091 0.718225
-0.0891564 0.17634 -0.998603 -0.512541 0.554004 0.656034
-0.0937615 0.172268 -0.998792 -0.508586 0.59065 0.626477
-0.0917296 0.176041 -1.00059 -0.522422 0.561393 0.641805
-0.0884832 0.180228 -1.00111 -0.495662 0.583113 0.643661
-0.089482 0.180077 -1.00192 -0.56537 0.571995 0.594288
-0.0872275 0.183766 -1.00369 -0.472279 0.649605 0.59579
-0.08756 0.183716 -1.00396 -0.540864 0.642533 0.542786
-0.0855629 0.18706 -1.00632 -0.461637 0.683838 0.565029
-0.0859217 0.187009 -1.00661 -0.517187 0.677573 0.522888
-0.0842815 0.190305 -1.00926 -0.49857 0.711891 0.49461
-0.0839098 0.190362 -1.00895 -0.44629 0.721021 0.530051
-0.0817285 0.193346 -1.01165 -0.440888 0.658722 0.609675
-0.0829025 0.193282 -1.01246 -0.456652 0.631485 0.626655
-0.0811257 0.196514 -1.01372 -0.456657 0.486013 0.745155
-0.0811727 0.197304 -1.01414 -0.443147 0.428355 0.787485
-0.0810939 0.201546 -1.01657 -0.357291 0.396248 0.845772
-0.0840021 0.201633 -1.01829 -0.52904 0.321039 0.785526
-0.0819959 0.204941 -1.01807 -0.400187 0.362337 0.841761
-0.0820112 0.206386 -1.01888 -0.441569 0.452265 0.774902
-0.0845671 0.210636 -1.02296 -0.442411 0.300288 0.845044
-0.0815811 0.210419 -1.02136 -0.233874 0.472159 0.849923
-0.0823262 0.214452 -1.02329 -0.147447 0.3391 0.929124
-0.0866324 0.216514 -1.02468 -0.307771 -0.0237734 0.951164
-0.0826729 0.215362 -1.02364 -0.0476879 0.298734 0.953144
-0.0852934 0.218673 -1.0243 -0.0228123 -0.000459181 0.99974
-0.0889133 0.221585 -1.02427 -0.209346 -0.105342 0.972151
-0.091851 0.225143 -1.02492 -0.289516 -0.105523 0.951339
-0.0922002 0.225222 -1.02504 -0.326291 -0.168567 0.930118
-0.0969125 0.226577 -1.02629 -0.157299 -0.278344 0.947513
-0.0920802 0.225406 -1.02496 -0.285244 -0.131869 0.94934
-0.0954363 0.228848 -1.02535 -0.111441 -0.326798 0.938501
-0.100721 0.229034 -1.02558 -0.178912 -0.531288 0.828084
-0.103765 0.232271 -1.02342 -0.103268 -0.572586 0.813315
-0.103851 0.232315 -1.02341 -0.197297 -0.569343 0.798074
-0.104582 0.23276 -1.02332 -0.179389 -0.523882 0.832687
-0.107803 0.2346 -1.02303 -0.0952346 -0.556067 0.825664
-0.107923 0.234759 -1.0229 0.0455796 -0.586377 0.808755
-0.11222 0.235876 -1.02154 0.0103669 -0.511985 0.858932
-0.0996188 0.230631 -1.02442 -0.0294108 -0.502351 0.864164
-0.107735 0.234697 -1.02295 -0.081968 -0.538624 0.83855
-0.116185 0.238095 -1.02096 0.0510384 -0.502138 0.86328
0.0915867 0.0546324 -1.01359 0.332216 -0.9412 0.0614396
0.0913613 0.0545696 -1.01509 0.46261 -0.861926 -0.207545
0.0923573 0.0548723 -1.01408 0.374761 -0.926582 -0.031617
0.0921583 0.0581325 -1.02574 0.449 -0.786496 -0.424056
0.0853765 0.0528236 -1.02103 0.497762 -0.828066 -0.257955
0.0910855 0.0579876 -1.02659 0.464753 -0.793137 -0.393621
-0.0855569 0.176466 -0.996188 -0.412796 0.588205 0.695423
-0.0840227 0.176382 -0.995334 -0.401036 0.601627 0.690807
-0.0830444 0.180086 -0.997879 -0.41743 0.587023 0.693654
-0.0836304 0.180111 -0.998215 -0.387523 0.603695 0.696691
-0.082191 0.182857 -0.999839 -0.454023 0.612683 0.646902
-0.0819022 0.183693 -1.00045 -0.462745 0.632218 0.621423
-0.0805044 0.187147 -1.00304 -0.43474 0.671157 0.600457
-0.0788252 0.190432 -1.00568 -0.447215 0.698581 0.558555
-0.0770598 0.193666 -1.00832 -0.497676 0.66791 0.553367
-0.0756711 0.197125 -1.01092 -0.477746 0.591866 0.649195
-0.0807052 0.197256 -1.01391 -0.390496 0.475153 0.788507
-0.0786185 0.201096 -1.01559 -0.324019 0.505339 0.799777
-0.0747595 0.20087 -1.01346 -0.40271 0.559961 0.724064
0.058497 -0.0334298 -0.942855 0.460826 0.851084 -0.251586
0.0543848 -0.0315051 -0.942036 0.307771 0.910015 -0.277759
0.0556327 -0.030349 -0.937598 0.371112 0.926975 0.0547087
0.0499165 -0.0302943 -0.940651 0.171834 0.985125 0.00155159
0.0508613 -0.0297464 -0.935728 0.00168342 0.999766 -0.0215693
0.043886 -0.0324946 -0.935447 -0.91905 0.360601 0.159105
0.0435748 -0.0329495 -0.936214 -0.783259 0.524333 0.334036
0.0447536 -0.0379449 -0.933939 -0.507964 0.254885 0.822804
0.0464523 -0.0303814 -0.938998 -0.134924 0.940319 0.312403
0.0506325 -0.0297686 -0.935609 -0.114431 0.98963 -0.086821
0.0790428 0.0616616 -1.00608 -0.473453 0.0129525 0.880724
0.0799256 0.0604151 -1.00578 -0.507004 -0.158792 0.847191
0.0807333 0.0616166 -1.00507 -0.562297 0.00386378 0.826926
0.0824626 0.0641568 -1.0034 -0.665297 0.180189 0.724508
0.0817045 0.067472 -1.00492 -0.401781 0.358313 0.842724
0.0772585 0.0652384 -1.00727 -0.445682 0.191959 0.874368
0.0784655 0.0672478 -1.00723 -0.520828 0.31851 0.792016
0.0812063 0.0718097 -1.00714 -0.299465 0.353 0.886404
0.0766913 0.0673583 -1.00821 -0.407443 0.332827 0.850421
0.0762559 0.0719084 -1.01057 -0.434328 0.421075 0.796275
0.0811399 0.0720995 -1.00727 -0.328204 0.467881 0.820591
0.0763275 0.0735441 -1.01153 -0.443512 0.519002 0.730708
0.0823977 0.0756373 -1.00985 -0.271124 0.46465 0.842967
0.0777056 0.0760131 -1.01232 -0.486818 0.433411 0.758395
0.0766426 0.0759673 -1.01305 -0.502306 0.488359 0.713578
0.140589 0.0484967 -1.02148 -0.483542 0.596109 0.640969
0.139073 0.0456251 -1.01988 -0.50861 0.609149 0.608484
0.139635 0.0456821 -1.01945 -0.515892 0.609403 0.602066
-0.147767 0.254787 -1.01009 -0.213517 -0.314162 0.925047
-0.143945 0.252278 -1.01044 -0.0948621 -0.3871 0.917145
-0.145249 0.258489 -1.00767 -0.224843 -0.352054 0.908572
-0.146808 0.259959 -1.00778 -0.357332 -0.152715 0.921408
-0.149623 0.260419 -1.00897 -0.325071 -0.163066 0.931525
-0.151268 0.257936 -1.01024 -0.267981 -0.244251 0.931949
-0.148329 0.262485 -1.00851 -0.327308 -0.0151601 0.944796
-0.154276 0.261846 -1.01009 -0.213342 -0.2214 0.951561
-0.154747 0.261131 -1.01044 -0.219415 -0.261144 0.940032
-0.151554 0.266188 -1.0091 -0.126083 -0.110203 0.985879
-0.157997 0.26354 -1.01029 -0.130935 -0.257449 0.95738
-0.155378 0.268693 -1.00875 -0.0359916 -0.208919 0.97727
-0.15846 0.263856 -1.01026 -0.0591459 -0.237575 0.969567
-0.162345 0.266238 -1.0098 -0.0213319 -0.250267 0.967942
-0.159283 0.271031 -1.00826 -0.00430556 -0.23376 0.972285
-0.166299 0.26848 -1.00924 -0.0604113 -0.381909 0.922223
-0.165687 0.268141 -1.00933 -0.0379472 -0.312595 0.949128
-0.166271 0.268523 -1.00921 -0.0394184 -0.369849 0.928255
-0.163246 0.273256 -1.00768 0.0035137 -0.270506 0.962712
-0.170317 0.270594 -1.00857 -0.0616395 -0.453807 0.888966
-0.169933 0.271158 -1.0082 0.0144773 -0.470487 0.882288
-0.16722 0.275459 -1.00708 0.178508 -0.380896 0.907223
-0.174469 0.272439 -1.00769 -0.0428433 -0.562167 0.825913
-0.172747 0.274827 -1.00535 -0.0594818 -0.573305 0.81718
-0.172226 0.27559 -1.00484 0.0888318 -0.46044 0.883235
-0.178716 0.274094 -1.00666 -0.024434 -0.489397 0.871719
-0.176519 0.277328 -1.00457 -0.0664907 -0.394527 0.916476
-0.176113 0.277967 -1.00438 -0.0328591 -0.323502 0.945657
-0.179793 0.279694 -1.00365 -0.0213959 -0.412177 0.910852
-0.182866 0.275943 -1.00578 -0.0600901 -0.410441 0.909905
-0.180221 0.2799 -1.00357 -0.0346481 -0.414634 0.909328
-0.184283 0.281925 -1.00283 -0.193942 -0.341053 0.91982
-0.18674 0.278345 -1.00534 -0.203845 -0.351262 0.913818
-0.185581 0.283156 -1.00292 -0.340219 -0.115557 0.933219
-0.188769 0.283694 -1.00424 -0.287473 -0.125975 0.949468
-0.190395 0.281187 -1.00525 -0.180408 -0.207503 0.961455
-0.187216 0.286215 -1.00389 -0.256069 0.0332668 0.966086
-0.19335 0.285208 -1.00521 -0.181291 -0.188223 0.965249
-0.193834 0.284462 -1.00551 -0.146377 -0.176819 0.973298
-0.190645 0.289511 -1.00417 -0.0886983 -0.0834329 0.992558
-0.197512 0.287234 -1.00527 -0.0361536 -0.342897 0.938677
-0.19756 0.287161 -1.00531 -0.0370216 -0.264586 0.963651
-0.194344 0.292265 -1.00401 0.0428899 -0.0904594 0.994976
-0.201649 0.289133 -1.00453 0.00318004 -0.490211 0.871598
-0.200611 0.290557 -1.00304 0.12526 -0.41968 0.898988
-0.197732 0.294716 -1.00382 0.0888946 0.312265 0.945827
-0.198157 0.294845 -1.00393 0.179378 0.155917 0.971346
-0.206018 0.290542 -1.0033 0.0202414 -0.430598 0.902317
-0.203858 0.293697 -1.00113 0.031648 -0.424941 0.904668
-0.198516 0.295185 -1.00373 0.445817 -0.259783 0.856598
-0.203457 0.294332 -1.00095 0.254865 -0.194746 0.947163
-0.197896 0.295312 -1.00408 0.235366 -0.203075 0.950454
-0.207399 0.296209 -1.00019 0.268968 -0.40684 0.873005
-0.21011 0.292508 -1.00251 -0.11874 -0.321748 0.93935
-0.207598 0.296198 -1.00009 0.0833701 -0.461063 0.883442
-0.208224 0.296703 -1.00009 -0.226008 -0.131265 0.965241
-0.212322 0.297579 -1.00155 -0.347001 -0.107524 0.931681
-0.213742 0.295396 -1.00246 -0.190791 -0.149457 0.970186
-0.210746 0.300058 -1.00081 -0.349793 0.0558171 0.935163
-0.216452 0.298513 -1.00297 -0.23099 0.0378423 0.97222
-0.212171 0.303354 -1.00201 -0.395934 0.095942 0.913253
-0.214169 0.303724 -1.0028 -0.169699 0.00885045 0.985456
-0.216931 0.299172 -1.00312 -0.200181 0.0346036 0.979148
-0.218222 0.305881 -1.00263 0.0204781 -0.257538 0.966051
-0.220138 0.302914 -1.00375 -0.122066 -0.217056 0.968497
-0.213197 0.305314 -1.00265 -0.236294 -0.120527 0.964178
-0.217021 0.307818 -1.00229 0.0459524 -0.355073 0.933708
0.0959355 -0.0494702 -0.939797 -0.491193 0.696684 0.522839
0.0977042 -0.0462385 -0.942442 -0.52065 0.691519 0.500724
0.0927499 -0.0474573 -0.945129 -0.466089 0.698963 0.542413
0.099441 -0.0429874 -0.945082 -0.561956 0.66329 0.494219
0.0954545 -0.0437151 -0.948495 -0.551908 0.665181 0.502923
0.100933 -0.0395907 -0.947693 -0.56865 0.643488 0.512407
0.055281 -0.0315063 -0.93488 0.420121 0.811197 0.406765
0.0923395 0.0622743 -1.00124 -0.456715 -0.0304795 0.889091
0.0886898 0.065513 -1.00301 -0.292357 0.158559 0.943073
0.0841529 0.0670817 -1.00388 -0.224483 0.530834 0.817204
0.0858134 0.070402 -1.00648 -0.187818 0.521707 0.832193
0.0880878 0.0744709 -1.00776 -0.348209 0.468507 0.811943
0.0813366 0.0720441 -1.00722 -0.0389535 0.474049 0.879636
0.083081 0.0754667 -1.00964 -0.105368 0.519165 0.848154
0.140993 0.049262 -1.02192 -0.4294 0.648753 0.62828
0.14261 0.0525299 -1.02461 -0.343456 0.556967 0.756192
-0.203589 0.192338 -0.943289 0.762054 0.110417 -0.63803
-0.205832 0.196602 -0.944658 0.749287 0.224785 -0.622928
-0.203576 0.198365 -0.941029 0.753357 0.265976 -0.601423
-0.201564 0.195054 -0.940091 0.775961 0.186084 -0.602708
-0.206225 0.197224 -0.944827 0.72776 0.292188 -0.620477
-0.207493 0.296367 -1.00005 0.233463 -0.224191 0.946168
-0.20467 0.301104 -1.00014 -0.0233931 -0.167886 0.985529
-0.20109 0.298368 -1.00134 0.237338 -0.294487 0.925715
-0.208976 0.302954 -1.00052 -0.269713 0.0166781 0.962796
-0.203839 0.302393 -0.99966 -0.15532 -0.291947 0.943739
-0.207251 0.30572 -0.999959 -0.278825 -0.119168 0.95292
-0.210494 0.30939 -1.00053 -0.288614 -0.321105 0.901994
-0.214365 0.311798 -1.0001 -0.0712665 -0.533218 0.842971
-0.221594 0.308818 -1.00074 0.175841 -0.43104 0.885034
-0.221181 0.308745 -1.00089 0.161536 -0.469144 0.868222
-0.221456 0.309039 -1.00069 0.15659 -0.411535 0.897841
-0.225955 0.310245 -0.999521 0.0325434 -0.443032 0.895915
-0.224657 0.312237 -0.998675 0.0344238 -0.461663 0.886387
-0.230038 0.312227 -0.998749 -0.129512 -0.406477 0.904435
-0.228059 0.315189 -0.997096 -0.0991216 -0.410575 0.906423
-0.232254 0.317174 -0.99723 -0.164874 -0.477578 0.862981
-0.233734 0.314988 -0.998596 -0.123345 -0.405881 0.905564
-0.218742 0.313192 -0.998856 0.0745899 -0.583777 0.808481
-0.22319 0.314443 -0.997502 0.0116772 -0.555667 0.831323
-0.227369 0.316235 -0.996579 -0.10939 -0.487387 0.866307
-0.231278 0.318566 -0.996085 -0.197172 -0.559868 0.80478
-0.237824 0.316956 -0.997813 0.11436 -0.509706 0.852714
-0.235821 0.319926 -0.996006 -0.0444042 -0.48688 0.872339
-0.242671 0.317406 -0.995821 0.353407 -0.316339 0.88036
-0.239521 0.322515 -0.995071 -0.10734 -0.216009 0.970473
-0.247159 0.318578 -0.994404 -0.193442 -0.372751 0.907545
-0.242761 0.317366 -0.995757 0.402045 -0.423238 0.811929
-0.246136 0.320254 -0.994243 0.111757 0.0882375 0.98981
-0.243942 0.324225 -0.995692 -0.148423 0.0754823 0.986039
-0.249166 0.321199 -0.994955 -0.403666 0.128842 0.905789
-0.248813 0.325387 -0.997284 -0.144274 0.151557 0.977863
-0.249033 0.324993 -0.997161 -0.110172 0.360229 0.926336
-0.235284 0.320705 -0.995437 -0.178995 -0.514485 0.838609
-0.239232 0.322958 -0.994881 -0.211134 -0.325691 0.9216
-0.242649 0.326278 -0.995172 -0.340677 -0.0909349 0.935772
-0.245568 0.330597 -0.99626 -0.375064 -0.035064 0.926335
-0.249501 0.325689 -0.997336 -0.0202545 0.113181 0.993368
-0.245735 0.330839 -0.996319 -0.370767 -0.031864 0.928179
-0.250342 0.331919 -0.997848 -0.178128 0.022366 0.983753
-0.252479 0.328254 -0.997406 0.114276 0.126086 0.985415
-0.248553 0.334781 -0.997239 -0.330114 -0.072658 0.941141
-0.254737 0.333661 -0.998413 0.0750036 0.164789 0.983473
-0.256499 0.330363 -0.996734 0.145344 0.284286 0.947658
-0.251608 0.338642 -0.998006 -0.341717 -0.0309091 0.939294
-0.251699 0.338659 -0.998042 -0.311198 -0.0100513 0.950292
-0.251664 0.338713 -0.99802 -0.347072 -0.131632 0.928555
-0.25863 0.336014 -0.997894 0.0837056 0.246893 0.965421
-0.259696 0.334123 -0.997377 -0.152702 0.142701 0.977915
-0.256303 0.340147 -0.999057 -0.102531 0.0538998 0.993268
-0.261274 0.337023 -0.998283 -0.215731 0.215413 0.952396
-0.260491 0.342141 -0.999174 -0.112207 0.0627121 0.991704
-0.262181 0.339314 -0.999157 -0.173724 0.167993 0.97036
-0.254919 0.342358 -0.998571 -0.26372 -0.0526579 0.963161
-0.258152 0.346047 -0.999156 -0.133465 0.0494285 0.98982
0.0995961 -0.0458873 -0.940815 -0.541494 0.689724 0.480692
0.101218 -0.042614 -0.9435 -0.571707 0.661322 0.485597
-0.20156 0.200272 -0.937369 0.739629 0.39997 -0.54127
-0.199703 0.197437 -0.936629 0.798024 0.25606 -0.545519
-0.201008 0.306723 -0.997747 -0.150166 -0.0892058 0.984628
-0.201685 0.307597 -0.997927 -0.258445 -0.0503093 0.964715
-0.205454 0.308544 -0.999098 -0.276296 -0.119578 0.953605
-0.204124 0.310645 -0.998519 -0.211721 -0.168337 0.962724
-0.210075 0.31001 -1.00015 -0.226166 -0.35453 0.90728
-0.207831 0.313384 -0.998349 -0.0890323 -0.443001 0.892089
-0.213953 0.312383 -0.999599 -0.0967275 -0.598422 0.795321
-0.212036 0.315121 -0.997382 -0.010677 -0.572143 0.820084
-0.216304 0.316344 -0.996095 0.079062 -0.625422 0.776271
-0.216479 0.316383 -0.996037 0.0800245 -0.622874 0.778218
-0.22088 0.317729 -0.994758 -0.0165732 -0.534703 0.844877
-0.224893 0.319853 -0.994099 -0.0806632 -0.536624 0.839957
-0.229052 0.321683 -0.993206 -0.150438 -0.531946 0.833308
-0.233021 0.323896 -0.992617 -0.237574 -0.441532 0.865222
-0.236636 0.326817 -0.992592 -0.315383 -0.259603 0.912765
-0.238931 0.329881 -0.993259 -0.438977 -0.0946036 0.893504
-0.240284 0.329981 -0.993981 -0.442528 -0.0552311 0.895052
-0.239647 0.330952 -0.993532 -0.463809 -0.123456 0.877291
-0.245433 0.330804 -0.996173 -0.429977 -0.0802485 0.899266
-0.242677 0.335047 -0.994442 -0.446396 -0.145191 0.882978
-0.244648 0.337591 -0.994966 -0.442432 -0.164286 0.881625
-0.246536 0.337854 -0.995818 -0.429714 -0.125501 0.894201
-0.245773 0.33901 -0.995246 -0.472059 -0.136947 0.870865
-0.248675 0.343362 -0.996359 -0.404938 -0.0539926 0.912749
-0.249633 0.344864 -0.996764 -0.391796 0.00346598 0.920046
-0.252929 0.345556 -0.99796 -0.292337 0.0127872 0.95623
-0.251511 0.347846 -0.997578 -0.335792 0.00784386 0.941903
-0.257604 0.346956 -0.999129 -0.192388 0.0110362 0.981257
-0.0482148 0.213423 -1.00449 -0.553023 0.448059 0.70243
-0.0484199 0.213402 -1.00465 -0.593464 0.444412 0.671043
-0.0482217 0.213737 -1.00466 -0.568246 0.434647 0.698698
-0.0543235 0.205385 -1.00279 -0.487228 0.645726 0.587917
-0.0530545 0.208916 -1.00537 -0.525004 0.577017 0.625637
-0.0523133 0.212762 -1.00789 -0.554044 0.489665 0.673249
-0.0478821 0.217514 -1.00696 -0.552288 0.495849 0.670158
-0.052017 0.216875 -1.01035 -0.528152 0.481694 0.699304
-0.0518781 0.217923 -1.01101 -0.49267 0.50678 0.707425
-0.0471391 0.221359 -1.00947 -0.530094 0.529847 0.662014
-0.050215 0.220905 -1.01197 -0.539838 0.497137 0.679286
-0.0478316 0.225107 -1.01301 -0.532521 0.44055 0.722729
-0.0464093 0.225213 -1.01199 -0.50541 0.479562 0.717343
-0.0515229 0.220869 -1.01283 -0.431037 0.495712 0.753974
-0.0512774 0.225013 -1.01529 -0.464128 0.425763 0.776731
-0.0464566 0.22745 -1.01323 -0.499616 0.362795 0.786615
-0.0516734 0.228507 -1.01708 -0.471808 0.319678 0.821707
-0.0468157 0.229746 -1.01436 -0.510359 0.256895 0.820694
-0.0509475 0.229704 -1.017 -0.513075 0.186666 0.837801
-0.0481411 0.234244 -1.01628 -0.481573 0.154846 0.862618
-0.0519136 0.229683 -1.01763 -0.494207 0.175423 0.851461
-0.052932 0.23568 -1.01855 -0.370272 -0.0892652 0.924624
-0.0539943 0.234024 -1.01912 -0.390131 -0.0186182 0.920571
-0.0484963 0.235042 -1.01657 -0.434318 0.0224513 0.90048
-0.056248 0.236566 -1.01951 -0.246023 -0.146038 0.958199
-0.0733989 0.245968 -1.01688 0.169494 -0.684636 0.708905
-0.0715428 0.245717 -1.01759 0.121652 -0.69074 0.712797
-0.0716134 0.248405 -1.01426 -0.00566328 -0.721134 0.692772
-0.0722791 0.249271 -1.01359 0.00197103 -0.556635 0.830755
